VERSION .7
FIELDS x y z
SIZE 4 4 4
TYPE F F F
COUNT 1 1 1
WIDTH  2279
HEIGHT 1
VIEWPOINT 0 0 0 1 0 0 0
POINTS 2279
DATA ascii
178.950 29.376 6.763
179.025 29.376 6.770
179.100 29.376 6.770
179.175 29.376 6.769
179.250 29.376 6.756
179.325 29.376 6.747
179.400 29.376 6.762
179.475 29.376 6.777
179.550 29.376 6.792
179.625 29.376 6.783
179.700 29.376 6.794
179.775 29.376 6.822
179.850 29.376 6.843
179.925 29.376 6.857
180.000 29.376 6.849
180.075 29.376 6.848
180.150 29.376 6.843
180.225 29.376 6.915
180.300 29.376 7.151
139.875 29.568 3.796
139.950 29.568 4.986
140.025 29.568 5.488
140.100 29.568 6.632
140.175 29.568 6.979
140.250 29.568 7.074
140.325 29.568 7.168
140.400 29.568 7.245
140.475 29.568 7.288
140.550 29.568 7.294
140.625 29.568 7.269
140.700 29.568 7.224
140.775 29.568 7.200
140.850 29.568 7.187
140.925 29.568 7.182
141.000 29.568 7.180
141.075 29.568 7.172
141.150 29.568 7.180
141.225 29.568 7.187
141.300 29.568 7.189
141.375 29.568 7.189
141.450 29.568 7.182
141.525 29.568 7.152
141.600 29.568 7.122
141.675 29.568 7.103
141.750 29.568 7.080
141.825 29.568 7.052
141.900 29.568 7.030
141.975 29.568 7.015
142.050 29.568 7.018
142.125 29.568 7.035
142.200 29.568 7.061
142.275 29.568 7.087
142.350 29.568 7.101
142.425 29.568 7.100
142.500 29.568 7.087
142.575 29.568 7.077
142.650 29.568 7.069
142.725 29.568 7.059
142.800 29.568 7.044
142.875 29.568 7.029
142.950 29.568 7.042
143.025 29.568 7.052
143.100 29.568 7.041
143.175 29.568 7.010
143.250 29.568 6.973
143.325 29.568 6.955
143.400 29.568 6.970
143.475 29.568 6.985
143.550 29.568 6.987
143.625 29.568 6.991
143.700 29.568 6.962
143.775 29.568 6.975
143.850 29.568 6.969
143.925 29.568 6.934
144.000 29.568 6.893
144.075 29.568 6.900
144.150 29.568 6.899
144.225 29.568 6.916
144.300 29.568 6.938
144.375 29.568 6.958
144.450 29.568 6.969
144.525 29.568 6.961
144.600 29.568 6.932
144.675 29.568 6.918
144.750 29.568 6.918
144.825 29.568 6.925
144.900 29.568 6.929
144.975 29.568 6.907
145.050 29.568 6.910
145.125 29.568 6.907
145.200 29.568 6.896
145.275 29.568 6.882
145.350 29.568 6.874
145.425 29.568 6.866
145.500 29.568 6.893
145.575 29.568 6.914
145.650 29.568 6.918
145.725 29.568 6.917
145.800 29.568 6.917
145.875 29.568 6.902
145.950 29.568 6.898
146.025 29.568 6.890
146.100 29.568 6.868
146.175 29.568 6.832
146.250 29.568 6.817
146.325 29.568 6.820
146.400 29.568 6.809
146.475 29.568 6.792
146.550 29.568 6.789
146.625 29.568 6.811
146.700 29.568 6.819
146.775 29.568 6.820
146.850 29.568 6.816
146.925 29.568 6.813
147.000 29.568 6.813
147.075 29.568 6.762
147.150 29.568 6.748
147.225 29.568 6.760
147.300 29.568 6.779
147.375 29.568 6.788
147.450 29.568 6.780
147.525 29.568 6.780
147.600 29.568 6.785
147.675 29.568 6.779
147.750 29.568 6.764
147.825 29.568 6.751
147.900 29.568 6.750
147.975 29.568 6.779
148.050 29.568 6.774
148.125 29.568 6.751
148.200 29.568 6.722
148.275 29.568 6.692
148.350 29.568 6.662
148.425 29.568 6.656
148.500 29.568 6.656
148.575 29.568 6.658
148.650 29.568 6.667
148.725 29.568 6.682
148.800 29.568 6.689
148.875 29.568 6.684
148.950 29.568 6.672
149.025 29.568 6.662
149.100 29.568 6.660
149.175 29.568 6.644
149.250 29.568 6.623
149.325 29.568 6.582
149.400 29.568 6.539
149.475 29.568 6.518
149.550 29.568 6.548
149.625 29.568 6.594
149.700 29.568 6.621
149.775 29.568 6.604
149.850 29.568 6.563
149.925 29.568 6.530
150.000 29.568 6.537
150.075 29.568 6.551
150.150 29.568 6.566
150.225 29.568 6.573
150.300 29.568 6.579
150.375 29.568 6.596
150.450 29.568 6.560
150.525 29.568 6.566
150.600 29.568 6.571
150.675 29.568 6.558
150.750 29.568 6.528
150.825 29.568 6.499
150.900 29.568 6.496
150.975 29.568 6.507
151.050 29.568 6.542
151.125 29.568 6.588
151.200 29.568 6.613
151.275 29.568 6.612
151.350 29.568 6.598
151.425 29.568 6.583
151.500 29.568 6.571
151.575 29.568 6.557
151.650 29.568 6.527
151.725 29.568 6.484
151.800 29.568 6.430
151.875 29.568 6.400
151.950 29.568 6.402
152.025 29.568 6.411
152.100 29.568 6.449
152.175 29.568 6.466
152.250 29.568 6.471
152.325 29.568 6.474
152.400 29.568 6.469
152.475 29.568 6.433
152.550 29.568 6.425
152.625 29.568 6.423
152.700 29.568 6.402
152.775 29.568 6.372
152.850 29.568 6.357
152.925 29.568 6.350
153.000 29.568 6.348
153.075 29.568 6.358
153.150 29.568 6.372
153.225 29.568 6.379
153.300 29.568 6.365
153.375 29.568 6.380
153.450 29.568 6.382
153.525 29.568 6.377
153.600 29.568 6.372
153.675 29.568 6.368
153.750 29.568 6.345
153.825 29.568 6.303
153.900 29.568 6.283
153.975 29.568 6.296
154.050 29.568 6.324
154.125 29.568 6.324
154.200 29.568 6.331
154.275 29.568 6.301
154.350 29.568 6.290
154.425 29.568 6.292
154.500 29.568 6.286
154.575 29.568 6.293
154.650 29.568 6.293
154.725 29.568 6.310
154.800 29.568 6.316
154.875 29.568 6.310
154.950 29.568 6.308
155.025 29.568 6.293
155.100 29.568 6.284
155.175 29.568 6.291
155.250 29.568 6.302
155.325 29.568 6.304
155.400 29.568 6.289
155.475 29.568 6.289
155.550 29.568 6.271
155.625 29.568 6.252
155.700 29.568 6.232
155.775 29.568 6.204
155.850 29.568 6.189
155.925 29.568 6.180
156.000 29.568 6.176
156.075 29.568 6.182
156.150 29.568 6.194
156.225 29.568 6.193
156.300 29.568 6.193
156.375 29.568 6.211
156.450 29.568 6.229
156.525 29.568 6.235
156.600 29.568 6.222
156.675 29.568 6.186
156.750 29.568 6.182
156.825 29.568 6.192
156.900 29.568 6.196
156.975 29.568 6.190
157.050 29.568 6.189
157.125 29.568 6.181
157.200 29.568 6.174
157.275 29.568 6.175
157.350 29.568 6.179
157.425 29.568 6.177
157.500 29.568 6.170
157.575 29.568 6.155
157.650 29.568 6.140
157.725 29.568 6.132
157.800 29.568 6.131
157.875 29.568 6.132
157.950 29.568 6.147
158.025 29.568 6.149
158.100 29.568 6.158
158.175 29.568 6.163
158.250 29.568 6.157
158.325 29.568 6.157
158.400 29.568 6.172
158.475 29.568 6.200
158.550 29.568 6.210
158.625 29.568 6.203
158.700 29.568 6.188
158.775 29.568 6.173
158.850 29.568 6.124
158.925 29.568 6.103
159.000 29.568 6.095
159.075 29.568 6.093
159.150 29.568 6.107
159.225 29.568 6.107
159.300 29.568 6.106
159.375 29.568 6.111
159.450 29.568 6.115
159.525 29.568 6.119
159.600 29.568 6.142
159.675 29.568 6.172
159.750 29.568 6.190
159.825 29.568 6.190
159.900 29.568 6.176
159.975 29.568 6.155
160.050 29.568 6.140
160.125 29.568 6.099
160.200 29.568 6.079
160.275 29.568 6.084
160.350 29.568 6.111
160.425 29.568 6.147
160.500 29.568 6.146
160.575 29.568 6.133
160.650 29.568 6.109
160.725 29.568 6.105
160.800 29.568 6.134
160.875 29.568 6.126
160.950 29.568 6.141
161.025 29.568 6.132
161.100 29.568 6.134
161.175 29.568 6.143
161.250 29.568 6.143
161.325 29.568 6.142
161.400 29.568 6.108
161.475 29.568 6.086
161.550 29.568 6.081
161.625 29.568 6.086
161.700 29.568 6.086
161.775 29.568 6.109
161.850 29.568 6.152
161.925 29.568 6.188
162.000 29.568 6.203
162.075 29.568 6.198
162.150 29.568 6.184
162.225 29.568 6.184
162.300 29.568 6.171
162.375 29.568 6.152
162.450 29.568 6.132
162.525 29.568 6.117
162.600 29.568 6.102
162.675 29.568 6.081
162.750 29.568 6.068
162.825 29.568 6.066
162.900 29.568 6.088
162.975 29.568 6.149
163.050 29.568 6.107
163.125 29.568 6.081
163.200 29.568 6.058
163.275 29.568 6.059
163.350 29.568 6.098
163.425 29.568 6.097
163.500 29.568 6.119
163.575 29.568 6.124
163.650 29.568 6.120
163.725 29.568 6.105
163.800 29.568 6.078
163.875 29.568 6.078
163.950 29.568 6.071
164.025 29.568 6.078
164.100 29.568 6.096
164.175 29.568 6.119
164.250 29.568 6.138
164.325 29.568 6.123
164.400 29.568 6.108
164.475 29.568 6.093
164.550 29.568 6.078
164.625 29.568 6.069
164.700 29.568 6.092
164.775 29.568 6.078
164.850 29.568 6.079
164.925 29.568 6.075
165.000 29.568 6.070
165.075 29.568 6.091
165.150 29.568 6.091
165.225 29.568 6.104
165.300 29.568 6.108
165.375 29.568 6.088
165.450 29.568 6.050
165.525 29.568 6.035
165.600 29.568 6.057
165.675 29.568 6.073
165.750 29.568 6.098
165.825 29.568 6.122
165.900 29.568 6.137
165.975 29.568 6.150
166.050 29.568 6.121
166.125 29.568 6.109
166.200 29.568 6.118
166.275 29.568 6.144
166.350 29.568 6.168
166.425 29.568 6.168
166.500 29.568 6.167
166.575 29.568 6.167
166.650 29.568 6.171
166.725 29.568 6.178
166.800 29.568 6.187
166.875 29.568 6.202
166.950 29.568 6.181
167.025 29.568 6.159
167.100 29.568 6.158
167.175 29.568 6.181
167.250 29.568 6.202
167.325 29.568 6.209
167.400 29.568 6.190
167.475 29.568 6.177
167.550 29.568 6.176
167.625 29.568 6.189
167.700 29.568 6.218
167.775 29.568 6.233
167.850 29.568 6.222
167.925 29.568 6.221
168.000 29.568 6.229
168.075 29.568 6.238
168.150 29.568 6.252
168.225 29.568 6.252
168.300 29.568 6.222
168.375 29.568 6.190
168.450 29.568 6.165
168.525 29.568 6.151
168.600 29.568 6.159
168.675 29.568 6.199
168.750 29.568 6.247
168.825 29.568 6.281
168.900 29.568 6.298
168.975 29.568 6.305
169.050 29.568 6.313
169.125 29.568 6.313
169.200 29.568 6.312
169.275 29.568 6.300
169.350 29.568 6.280
169.425 29.568 6.265
169.500 29.568 6.251
169.575 29.568 6.272
169.650 29.568 6.279
169.725 29.568 6.274
169.800 29.568 6.277
169.875 29.568 6.292
169.950 29.568 6.292
170.025 29.568 6.316
170.100 29.568 6.337
170.175 29.568 6.345
170.250 29.568 6.333
170.325 29.568 6.278
170.400 29.568 6.259
170.475 29.568 6.274
170.550 29.568 6.309
170.625 29.568 6.348
170.700 29.568 6.378
170.775 29.568 6.371
170.850 29.568 6.330
170.925 29.568 6.316
171.000 29.568 6.330
171.075 29.568 6.356
171.150 29.568 6.370
171.225 29.568 6.377
171.300 29.568 6.406
171.375 29.568 6.425
171.450 29.568 6.424
171.525 29.568 6.411
171.600 29.568 6.403
171.675 29.568 6.388
171.750 29.568 6.385
171.825 29.568 6.367
171.900 29.568 6.351
171.975 29.568 6.359
172.050 29.568 6.366
172.125 29.568 6.352
172.200 29.568 6.348
172.275 29.568 6.347
172.350 29.568 6.347
172.425 29.568 6.347
172.500 29.568 6.355
172.575 29.568 6.397
172.650 29.568 6.432
172.725 29.568 6.454
172.800 29.568 6.464
172.875 29.568 6.465
172.950 29.568 6.472
173.025 29.568 6.472
173.100 29.568 6.466
173.175 29.568 6.462
173.250 29.568 6.472
173.325 29.568 6.498
173.400 29.568 6.498
173.475 29.568 6.505
173.550 29.568 6.506
173.625 29.568 6.506
173.700 29.568 6.502
173.775 29.568 6.486
173.850 29.568 6.457
173.925 29.568 6.451
174.000 29.568 6.455
174.075 29.568 6.471
174.150 29.568 6.493
174.225 29.568 6.478
174.300 29.568 6.470
174.375 29.568 6.462
174.450 29.568 6.462
174.525 29.568 6.469
174.600 29.568 6.477
174.675 29.568 6.484
174.750 29.568 6.491
174.825 29.568 6.493
174.900 29.568 6.493
174.975 29.568 6.499
175.050 29.568 6.522
175.125 29.568 6.545
175.200 29.568 6.561
175.275 29.568 6.544
175.350 29.568 6.535
175.425 29.568 6.544
175.500 29.568 6.536
175.575 29.568 6.521
175.650 29.568 6.518
175.725 29.568 6.522
175.800 29.568 6.529
175.875 29.568 6.537
175.950 29.568 6.544
176.025 29.568 6.583
176.100 29.568 6.602
176.175 29.568 6.607
176.250 29.568 6.597
176.325 29.568 6.577
176.400 29.568 6.562
176.475 29.568 6.561
176.550 29.568 6.560
176.625 29.568 6.580
176.700 29.568 6.608
176.775 29.568 6.615
176.850 29.568 6.623
176.925 29.568 6.595
177.000 29.568 6.576
177.075 29.568 6.564
177.150 29.568 6.558
177.225 29.568 6.558
177.300 29.568 6.565
177.375 29.568 6.591
177.450 29.568 6.617
177.525 29.568 6.637
177.600 29.568 6.646
177.675 29.568 6.639
177.750 29.568 6.654
177.825 29.568 6.656
177.900 29.568 6.666
177.975 29.568 6.670
178.050 29.568 6.670
178.125 29.568 6.693
178.200 29.568 6.716
178.275 29.568 6.732
178.350 29.568 6.726
178.425 29.568 6.708
178.500 29.568 6.689
178.575 29.568 6.681
178.650 29.568 6.711
178.725 29.568 6.729
178.800 29.568 6.739
178.875 29.568 6.737
178.950 29.568 6.725
179.025 29.568 6.725
179.100 29.568 6.732
179.175 29.568 6.733
179.250 29.568 6.737
179.325 29.568 6.747
179.400 29.568 6.757
179.475 29.568 6.742
179.550 29.568 6.748
179.625 29.568 6.761
179.700 29.568 6.789
179.775 29.568 6.813
179.850 29.568 6.814
179.925 29.568 6.821
180.000 29.568 6.828
180.075 29.568 6.813
180.150 29.568 6.759
180.225 29.568 6.676
180.300 29.568 6.587
139.800 29.760 3.352
139.875 29.760 3.998
139.950 29.760 5.082
140.025 29.760 5.661
140.100 29.760 6.632
140.175 29.760 6.979
140.250 29.760 7.074
140.325 29.760 7.168
140.400 29.760 7.245
140.475 29.760 7.288
140.550 29.760 7.292
140.625 29.760 7.261
140.700 29.760 7.224
140.775 29.760 7.193
140.850 29.760 7.183
140.925 29.760 7.175
141.000 29.760 7.164
141.075 29.760 7.163
141.150 29.760 7.170
141.225 29.760 7.171
141.300 29.760 7.166
141.375 29.760 7.153
141.450 29.760 7.130
141.525 29.760 7.107
141.600 29.760 7.092
141.675 29.760 7.071
141.750 29.760 7.048
141.825 29.760 7.030
141.900 29.760 7.021
141.975 29.760 7.006
142.050 29.760 7.009
142.125 29.760 7.007
142.200 29.760 6.999
142.275 29.760 6.993
142.350 29.760 6.992
142.425 29.760 7.014
142.500 29.760 7.037
142.575 29.760 7.045
142.650 29.760 7.039
142.725 29.760 7.025
142.800 29.760 7.017
142.875 29.760 7.023
142.950 29.760 7.036
143.025 29.760 7.047
143.100 29.760 7.041
143.175 29.760 7.010
143.250 29.760 6.973
143.325 29.760 6.955
143.400 29.760 6.970
143.475 29.760 6.985
143.550 29.760 6.987
143.625 29.760 6.991
143.700 29.760 6.962
143.775 29.760 6.938
143.850 29.760 6.915
143.925 29.760 6.898
144.000 29.760 6.891
144.075 29.760 6.891
144.150 29.760 6.898
144.225 29.760 6.916
144.300 29.760 6.938
144.375 29.760 6.947
144.450 29.760 6.932
144.525 29.760 6.917
144.600 29.760 6.901
144.675 29.760 6.896
144.750 29.760 6.903
144.825 29.760 6.911
144.900 29.760 6.904
144.975 29.760 6.896
145.050 29.760 6.888
145.125 29.760 6.875
145.200 29.760 6.875
145.275 29.760 6.893
145.350 29.760 6.892
145.425 29.760 6.899
145.500 29.760 6.883
145.575 29.760 6.873
145.650 29.760 6.870
145.725 29.760 6.863
145.800 29.760 6.862
145.875 29.760 6.835
145.950 29.760 6.825
146.025 29.760 6.821
146.100 29.760 6.817
146.175 29.760 6.824
146.250 29.760 6.823
146.325 29.760 6.823
146.400 29.760 6.809
146.475 29.760 6.792
146.550 29.760 6.785
146.625 29.760 6.785
146.700 29.760 6.785
146.775 29.760 6.757
146.850 29.760 6.731
146.925 29.760 6.716
147.000 29.760 6.702
147.075 29.760 6.724
147.150 29.760 6.740
147.225 29.760 6.760
147.300 29.760 6.779
147.375 29.760 6.788
147.450 29.760 6.780
147.525 29.760 6.780
147.600 29.760 6.779
147.675 29.760 6.765
147.750 29.760 6.746
147.825 29.760 6.727
147.900 29.760 6.690
147.975 29.760 6.686
148.050 29.760 6.701
148.125 29.760 6.709
148.200 29.760 6.699
148.275 29.760 6.683
148.350 29.760 6.661
148.425 29.760 6.656
148.500 29.760 6.656
148.575 29.760 6.658
148.650 29.760 6.667
148.725 29.760 6.682
148.800 29.760 6.689
148.875 29.760 6.690
148.950 29.760 6.690
149.025 29.760 6.684
149.100 29.760 6.671
149.175 29.760 6.679
149.250 29.760 6.686
149.325 29.760 6.667
149.400 29.760 6.633
149.475 29.760 6.605
149.550 29.760 6.604
149.625 29.760 6.611
149.700 29.760 6.625
149.775 29.760 6.604
149.850 29.760 6.563
149.925 29.760 6.529
150.000 29.760 6.521
150.075 29.760 6.519
150.150 29.760 6.534
150.225 29.760 6.553
150.300 29.760 6.563
150.375 29.760 6.563
150.450 29.760 6.555
150.525 29.760 6.566
150.600 29.760 6.571
150.675 29.760 6.558
150.750 29.760 6.532
150.825 29.760 6.524
150.900 29.760 6.510
150.975 29.760 6.511
151.050 29.760 6.526
151.125 29.760 6.546
151.200 29.760 6.560
151.275 29.760 6.575
151.350 29.760 6.576
151.425 29.760 6.570
151.500 29.760 6.559
151.575 29.760 6.541
151.650 29.760 6.520
151.725 29.760 6.535
151.800 29.760 6.531
151.875 29.760 6.518
151.950 29.760 6.503
152.025 29.760 6.491
152.100 29.760 6.498
152.175 29.760 6.498
152.250 29.760 6.498
152.325 29.760 6.486
152.400 29.760 6.462
152.475 29.760 6.433
152.550 29.760 6.410
152.625 29.760 6.388
152.700 29.760 6.369
152.775 29.760 6.359
152.850 29.760 6.357
152.925 29.760 6.350
153.000 29.760 6.348
153.075 29.760 6.353
153.150 29.760 6.363
153.225 29.760 6.384
153.300 29.760 6.419
153.375 29.760 6.419
153.450 29.760 6.418
153.525 29.760 6.413
153.600 29.760 6.402
153.675 29.760 6.387
153.750 29.760 6.372
153.825 29.760 6.364
153.900 29.760 6.345
153.975 29.760 6.330
154.050 29.760 6.324
154.125 29.760 6.323
154.200 29.760 6.308
154.275 29.760 6.311
154.350 29.760 6.323
154.425 29.760 6.337
154.500 29.760 6.344
154.575 29.760 6.322
154.650 29.760 6.306
154.725 29.760 6.313
154.800 29.760 6.316
154.875 29.760 6.305
154.950 29.760 6.292
155.025 29.760 6.291
155.100 29.760 6.278
155.175 29.760 6.277
155.250 29.760 6.287
155.325 29.760 6.295
155.400 29.760 6.280
155.475 29.760 6.280
155.550 29.760 6.256
155.625 29.760 6.234
155.700 29.760 6.219
155.775 29.760 6.204
155.850 29.760 6.189
155.925 29.760 6.186
156.000 29.760 6.181
156.075 29.760 6.176
156.150 29.760 6.178
156.225 29.760 6.193
156.300 29.760 6.179
156.375 29.760 6.163
156.450 29.760 6.172
156.525 29.760 6.197
156.600 29.760 6.207
156.675 29.760 6.184
156.750 29.760 6.182
156.825 29.760 6.192
156.900 29.760 6.199
156.975 29.760 6.201
157.050 29.760 6.207
157.125 29.760 6.199
157.200 29.760 6.179
157.275 29.760 6.175
157.350 29.760 6.185
157.425 29.760 6.192
157.500 29.760 6.170
157.575 29.760 6.155
157.650 29.760 6.140
157.725 29.760 6.139
157.800 29.760 6.145
157.875 29.760 6.132
157.950 29.760 6.147
158.025 29.760 6.149
158.100 29.760 6.148
158.175 29.760 6.138
158.250 29.760 6.115
158.325 29.760 6.085
158.400 29.760 6.062
158.475 29.760 6.055
158.550 29.760 6.066
158.625 29.760 6.099
158.700 29.760 6.149
158.775 29.760 6.172
158.850 29.760 6.144
158.925 29.760 6.130
159.000 29.760 6.115
159.075 29.760 6.102
159.150 29.760 6.117
159.225 29.760 6.132
159.300 29.760 6.115
159.375 29.760 6.106
159.450 29.760 6.109
159.525 29.760 6.119
159.600 29.760 6.142
159.675 29.760 6.172
159.750 29.760 6.190
159.825 29.760 6.190
159.900 29.760 6.176
159.975 29.760 6.155
160.050 29.760 6.140
160.125 29.760 6.099
160.200 29.760 6.079
160.275 29.760 6.068
160.350 29.760 6.054
160.425 29.760 6.047
160.500 29.760 6.025
160.575 29.760 6.029
160.650 29.760 6.053
160.725 29.760 6.072
160.800 29.760 6.070
160.875 29.760 6.055
160.950 29.760 6.067
161.025 29.760 6.076
161.100 29.760 6.104
161.175 29.760 6.137
161.250 29.760 6.143
161.325 29.760 6.142
161.400 29.760 6.108
161.475 29.760 6.086
161.550 29.760 6.081
161.625 29.760 6.086
161.700 29.760 6.086
161.775 29.760 6.109
161.850 29.760 6.152
161.925 29.760 6.188
162.000 29.760 6.203
162.075 29.760 6.198
162.150 29.760 6.184
162.225 29.760 6.176
162.300 29.760 6.168
162.375 29.760 6.152
162.450 29.760 6.135
162.525 29.760 6.125
162.600 29.760 6.103
162.675 29.760 6.081
162.750 29.760 6.068
162.825 29.760 6.066
162.900 29.760 6.088
162.975 29.760 6.154
163.050 29.760 6.153
163.125 29.760 6.134
163.200 29.760 6.112
163.275 29.760 6.095
163.350 29.760 6.087
163.425 29.760 6.080
163.500 29.760 6.065
163.575 29.760 6.050
163.650 29.760 6.045
163.725 29.760 6.057
163.800 29.760 6.078
163.875 29.760 6.078
163.950 29.760 6.071
164.025 29.760 6.078
164.100 29.760 6.086
164.175 29.760 6.089
164.250 29.760 6.104
164.325 29.760 6.111
164.400 29.760 6.106
164.475 29.760 6.085
164.550 29.760 6.056
164.625 29.760 6.030
164.700 29.760 6.037
164.775 29.760 6.038
164.850 29.760 6.037
164.925 29.760 6.048
165.000 29.760 6.066
165.075 29.760 6.072
165.150 29.760 6.065
165.225 29.760 6.039
165.300 29.760 6.010
165.375 29.760 5.987
165.450 29.760 5.983
165.525 29.760 6.006
165.600 29.760 6.051
165.675 29.760 6.073
165.750 29.760 6.098
165.825 29.760 6.122
165.900 29.760 6.135
165.975 29.760 6.142
166.050 29.760 6.142
166.125 29.760 6.142
166.200 29.760 6.146
166.275 29.760 6.156
166.350 29.760 6.168
166.425 29.760 6.168
166.500 29.760 6.160
166.575 29.760 6.164
166.650 29.760 6.171
166.725 29.760 6.173
166.800 29.760 6.166
166.875 29.760 6.166
166.950 29.760 6.173
167.025 29.760 6.159
167.100 29.760 6.158
167.175 29.760 6.181
167.250 29.760 6.202
167.325 29.760 6.209
167.400 29.760 6.190
167.475 29.760 6.177
167.550 29.760 6.169
167.625 29.760 6.166
167.700 29.760 6.181
167.775 29.760 6.188
167.850 29.760 6.196
167.925 29.760 6.208
168.000 29.760 6.201
168.075 29.760 6.171
168.150 29.760 6.170
168.225 29.760 6.192
168.300 29.760 6.203
168.375 29.760 6.190
168.450 29.760 6.165
168.525 29.760 6.151
168.600 29.760 6.159
168.675 29.760 6.199
168.750 29.760 6.230
168.825 29.760 6.230
168.900 29.760 6.224
168.975 29.760 6.260
169.050 29.760 6.275
169.125 29.760 6.269
169.200 29.760 6.272
169.275 29.760 6.269
169.350 29.760 6.250
169.425 29.760 6.221
169.500 29.760 6.228
169.575 29.760 6.266
169.650 29.760 6.314
169.725 29.760 6.327
169.800 29.760 6.307
169.875 29.760 6.292
169.950 29.760 6.292
170.025 29.760 6.322
170.100 29.760 6.341
170.175 29.760 6.345
170.250 29.760 6.337
170.325 29.760 6.302
170.400 29.760 6.266
170.475 29.760 6.274
170.550 29.760 6.309
170.625 29.760 6.348
170.700 29.760 6.380
170.775 29.760 6.380
170.850 29.760 6.402
170.925 29.760 6.395
171.000 29.760 6.372
171.075 29.760 6.356
171.150 29.760 6.369
171.225 29.760 6.369
171.300 29.760 6.397
171.375 29.760 6.422
171.450 29.760 6.424
171.525 29.760 6.411
171.600 29.760 6.404
171.675 29.760 6.404
171.750 29.760 6.391
171.825 29.760 6.367
171.900 29.760 6.351
171.975 29.760 6.353
172.050 29.760 6.324
172.125 29.760 6.301
172.200 29.760 6.293
172.275 29.760 6.299
172.350 29.760 6.316
172.425 29.760 6.338
172.500 29.760 6.353
172.575 29.760 6.375
172.650 29.760 6.404
172.725 29.760 6.431
172.800 29.760 6.448
172.875 29.760 6.453
172.950 29.760 6.446
173.025 29.760 6.425
173.100 29.760 6.408
173.175 29.760 6.405
173.250 29.760 6.426
173.325 29.760 6.463
173.400 29.760 6.478
173.475 29.760 6.479
173.550 29.760 6.469
173.625 29.760 6.475
173.700 29.760 6.487
173.775 29.760 6.451
173.850 29.760 6.451
173.925 29.760 6.451
174.000 29.760 6.451
174.075 29.760 6.453
174.150 29.760 6.459
174.225 29.760 6.459
174.300 29.760 6.452
174.375 29.760 6.455
174.450 29.760 6.462
174.525 29.760 6.469
174.600 29.760 6.477
174.675 29.760 6.492
174.750 29.760 6.493
174.825 29.760 6.493
174.900 29.760 6.493
174.975 29.760 6.499
175.050 29.760 6.520
175.125 29.760 6.528
175.200 29.760 6.542
175.275 29.760 6.552
175.350 29.760 6.551
175.425 29.760 6.540
175.500 29.760 6.518
175.575 29.760 6.518
175.650 29.760 6.518
175.725 29.760 6.513
175.800 29.760 6.514
175.875 29.760 6.529
175.950 29.760 6.544
176.025 29.760 6.567
176.100 29.760 6.571
176.175 29.760 6.562
176.250 29.760 6.547
176.325 29.760 6.535
176.400 29.760 6.550
176.475 29.760 6.551
176.550 29.760 6.551
176.625 29.760 6.562
176.700 29.760 6.585
176.775 29.760 6.602
176.850 29.760 6.580
176.925 29.760 6.558
177.000 29.760 6.550
177.075 29.760 6.553
177.150 29.760 6.560
177.225 29.760 6.567
177.300 29.760 6.567
177.375 29.760 6.591
177.450 29.760 6.617
177.525 29.760 6.637
177.600 29.760 6.646
177.675 29.760 6.639
177.750 29.760 6.654
177.825 29.760 6.656
177.900 29.760 6.666
177.975 29.760 6.670
178.050 29.760 6.664
178.125 29.760 6.664
178.200 29.760 6.656
178.275 29.760 6.643
178.350 29.760 6.628
178.425 29.760 6.620
178.500 29.760 6.627
178.575 29.760 6.635
178.650 29.760 6.663
178.725 29.760 6.677
178.800 29.760 6.688
178.875 29.760 6.703
178.950 29.760 6.716
179.025 29.760 6.716
179.100 29.760 6.701
179.175 29.760 6.702
179.250 29.760 6.714
179.325 29.760 6.729
179.400 29.760 6.741
179.475 29.760 6.733
179.550 29.760 6.732
179.625 29.760 6.748
179.700 29.760 6.766
179.775 29.760 6.779
179.850 29.760 6.786
179.925 29.760 6.793
180.000 29.760 6.773
180.075 29.760 6.776
180.150 29.760 6.749
180.225 29.760 6.676
180.300 29.760 6.587
180.375 29.760 6.647
180.450 29.760 6.660
139.800 29.952 3.352
139.875 29.952 4.011
139.950 29.952 5.306
140.025 29.952 5.726
140.100 29.952 6.271
140.175 29.952 6.785
140.250 29.952 7.043
140.325 29.952 7.180
140.400 29.952 7.246
140.475 29.952 7.271
140.550 29.952 7.272
140.625 29.952 7.261
140.700 29.952 7.224
140.775 29.952 7.200
140.850 29.952 7.182
140.925 29.952 7.173
141.000 29.952 7.173
141.075 29.952 7.172
141.150 29.952 7.180
141.225 29.952 7.187
141.300 29.952 7.189
141.375 29.952 7.185
141.450 29.952 7.175
141.525 29.952 7.152
141.600 29.952 7.108
141.675 29.952 7.064
141.750 29.952 7.034
141.825 29.952 7.023
141.900 29.952 7.021
141.975 29.952 7.006
142.050 29.952 7.009
142.125 29.952 7.031
142.200 29.952 7.051
142.275 29.952 7.051
142.350 29.952 7.028
142.425 29.952 7.020
142.500 29.952 7.018
142.575 29.952 7.018
142.650 29.952 7.017
142.725 29.952 7.018
142.800 29.952 7.025
142.875 29.952 7.025
142.950 29.952 7.036
143.025 29.952 7.047
143.100 29.952 7.041
143.175 29.952 7.010
143.250 29.952 6.973
143.325 29.952 6.975
143.400 29.952 6.982
143.475 29.952 6.985
143.550 29.952 6.987
143.625 29.952 6.991
143.700 29.952 6.962
143.775 29.952 6.926
143.850 29.952 6.906
143.925 29.952 6.898
144.000 29.952 6.891
144.075 29.952 6.891
144.150 29.952 6.919
144.225 29.952 6.944
144.300 29.952 6.957
144.375 29.952 6.953
144.450 29.952 6.932
144.525 29.952 6.917
144.600 29.952 6.901
144.675 29.952 6.896
144.750 29.952 6.907
144.825 29.952 6.923
144.900 29.952 6.921
144.975 29.952 6.898
145.050 29.952 6.888
145.125 29.952 6.875
145.200 29.952 6.872
145.275 29.952 6.885
145.350 29.952 6.892
145.425 29.952 6.899
145.500 29.952 6.883
145.575 29.952 6.873
145.650 29.952 6.870
145.725 29.952 6.860
145.800 29.952 6.838
145.875 29.952 6.822
145.950 29.952 6.811
146.025 29.952 6.797
146.100 29.952 6.784
146.175 29.952 6.806
146.250 29.952 6.813
146.325 29.952 6.814
146.400 29.952 6.805
146.475 29.952 6.792
146.550 29.952 6.784
146.625 29.952 6.776
146.700 29.952 6.775
146.775 29.952 6.754
146.850 29.952 6.731
146.925 29.952 6.716
147.000 29.952 6.702
147.075 29.952 6.724
147.150 29.952 6.740
147.225 29.952 6.760
147.300 29.952 6.779
147.375 29.952 6.788
147.450 29.952 6.780
147.525 29.952 6.780
147.600 29.952 6.767
147.675 29.952 6.756
147.750 29.952 6.746
147.825 29.952 6.727
147.900 29.952 6.690
147.975 29.952 6.686
148.050 29.952 6.686
148.125 29.952 6.685
148.200 29.952 6.685
148.275 29.952 6.683
148.350 29.952 6.646
148.425 29.952 6.632
148.500 29.952 6.616
148.575 29.952 6.614
148.650 29.952 6.647
148.725 29.952 6.654
148.800 29.952 6.676
148.875 29.952 6.687
148.950 29.952 6.690
149.025 29.952 6.687
149.100 29.952 6.680
149.175 29.952 6.679
149.250 29.952 6.686
149.325 29.952 6.667
149.400 29.952 6.633
149.475 29.952 6.605
149.550 29.952 6.604
149.625 29.952 6.611
149.700 29.952 6.625
149.775 29.952 6.617
149.850 29.952 6.592
149.925 29.952 6.563
150.000 29.952 6.540
150.075 29.952 6.551
150.150 29.952 6.566
150.225 29.952 6.569
150.300 29.952 6.563
150.375 29.952 6.562
150.450 29.952 6.547
150.525 29.952 6.544
150.600 29.952 6.548
150.675 29.952 6.546
150.750 29.952 6.532
150.825 29.952 6.524
150.900 29.952 6.538
150.975 29.952 6.536
151.050 29.952 6.553
151.125 29.952 6.567
151.200 29.952 6.536
151.275 29.952 6.500
151.350 29.952 6.500
151.425 29.952 6.512
151.500 29.952 6.527
151.575 29.952 6.532
151.650 29.952 6.511
151.725 29.952 6.518
151.800 29.952 6.513
151.875 29.952 6.484
151.950 29.952 6.442
152.025 29.952 6.408
152.100 29.952 6.400
152.175 29.952 6.405
152.250 29.952 6.398
152.325 29.952 6.382
152.400 29.952 6.375
152.475 29.952 6.405
152.550 29.952 6.405
152.625 29.952 6.388
152.700 29.952 6.369
152.775 29.952 6.359
152.850 29.952 6.357
152.925 29.952 6.350
153.000 29.952 6.348
153.075 29.952 6.353
153.150 29.952 6.360
153.225 29.952 6.367
153.300 29.952 6.374
153.375 29.952 6.381
153.450 29.952 6.382
153.525 29.952 6.377
153.600 29.952 6.372
153.675 29.952 6.372
153.750 29.952 6.371
153.825 29.952 6.364
153.900 29.952 6.345
153.975 29.952 6.337
154.050 29.952 6.338
154.125 29.952 6.323
154.200 29.952 6.308
154.275 29.952 6.305
154.350 29.952 6.313
154.425 29.952 6.319
154.500 29.952 6.311
154.575 29.952 6.303
154.650 29.952 6.295
154.725 29.952 6.293
154.800 29.952 6.300
154.875 29.952 6.305
154.950 29.952 6.292
155.025 29.952 6.291
155.100 29.952 6.278
155.175 29.952 6.277
155.250 29.952 6.284
155.325 29.952 6.283
155.400 29.952 6.253
155.475 29.952 6.231
155.550 29.952 6.236
155.625 29.952 6.230
155.700 29.952 6.210
155.775 29.952 6.196
155.850 29.952 6.195
155.925 29.952 6.189
156.000 29.952 6.181
156.075 29.952 6.176
156.150 29.952 6.178
156.225 29.952 6.193
156.300 29.952 6.179
156.375 29.952 6.163
156.450 29.952 6.164
156.525 29.952 6.176
156.600 29.952 6.183
156.675 29.952 6.182
156.750 29.952 6.182
156.825 29.952 6.192
156.900 29.952 6.203
156.975 29.952 6.208
157.050 29.952 6.207
157.125 29.952 6.199
157.200 29.952 6.179
157.275 29.952 6.175
157.350 29.952 6.182
157.425 29.952 6.185
157.500 29.952 6.170
157.575 29.952 6.162
157.650 29.952 6.160
157.725 29.952 6.167
157.800 29.952 6.177
157.875 29.952 6.178
157.950 29.952 6.185
158.025 29.952 6.165
158.100 29.952 6.152
158.175 29.952 6.138
158.250 29.952 6.115
158.325 29.952 6.085
158.400 29.952 6.062
158.475 29.952 6.055
158.550 29.952 6.066
158.625 29.952 6.096
158.700 29.952 6.141
158.775 29.952 6.171
158.850 29.952 6.165
158.925 29.952 6.141
159.000 29.952 6.105
159.075 29.952 6.078
159.150 29.952 6.108
159.225 29.952 6.131
159.300 29.952 6.115
159.375 29.952 6.106
159.450 29.952 6.097
159.525 29.952 6.081
159.600 29.952 6.104
159.675 29.952 6.090
159.750 29.952 6.086
159.825 29.952 6.082
159.900 29.952 6.074
159.975 29.952 6.068
160.050 29.952 6.083
160.125 29.952 6.053
160.200 29.952 6.034
160.275 29.952 6.005
160.350 29.952 5.944
160.425 29.952 5.900
160.500 29.952 5.857
160.575 29.952 5.821
160.650 29.952 5.801
160.725 29.952 5.809
160.800 29.952 5.832
160.875 29.952 5.855
160.950 29.952 5.867
161.025 29.952 5.867
161.100 29.952 5.867
161.175 29.952 5.889
161.250 29.952 5.896
161.325 29.952 5.903
161.400 29.952 5.886
161.475 29.952 5.871
161.550 29.952 5.879
161.625 29.952 5.886
161.700 29.952 5.917
161.775 29.952 5.961
161.850 29.952 6.014
161.925 29.952 6.060
162.000 29.952 6.090
162.075 29.952 6.100
162.150 29.952 6.085
162.225 29.952 6.070
162.300 29.952 6.065
162.375 29.952 6.080
162.450 29.952 6.106
162.525 29.952 6.114
162.600 29.952 6.078
162.675 29.952 6.073
162.750 29.952 6.083
162.825 29.952 6.105
162.900 29.952 6.133
162.975 29.952 6.155
163.050 29.952 6.162
163.125 29.952 6.149
163.200 29.952 6.129
163.275 29.952 6.101
163.350 29.952 6.069
163.425 29.952 6.062
163.500 29.952 6.054
163.575 29.952 6.046
163.650 29.952 6.032
163.725 29.952 6.026
163.800 29.952 6.077
163.875 29.952 6.062
163.950 29.952 6.092
164.025 29.952 6.099
164.100 29.952 6.091
164.175 29.952 6.089
164.250 29.952 6.104
164.325 29.952 6.111
164.400 29.952 6.106
164.475 29.952 6.076
164.550 29.952 6.043
164.625 29.952 6.029
164.700 29.952 6.029
164.775 29.952 6.035
164.850 29.952 6.037
164.925 29.952 6.030
165.000 29.952 6.008
165.075 29.952 5.958
165.150 29.952 5.998
165.225 29.952 6.009
165.300 29.952 5.992
165.375 29.952 5.967
165.450 29.952 5.953
165.525 29.952 5.945
165.600 29.952 5.970
165.675 29.952 5.995
165.750 29.952 6.030
165.825 29.952 6.083
165.900 29.952 6.133
165.975 29.952 6.133
166.050 29.952 6.141
166.125 29.952 6.142
166.200 29.952 6.146
166.275 29.952 6.153
166.350 29.952 6.158
166.425 29.952 6.150
166.500 29.952 6.149
166.575 29.952 6.149
166.650 29.952 6.153
166.725 29.952 6.158
166.800 29.952 6.158
166.875 29.952 6.165
166.950 29.952 6.194
167.025 29.952 6.232
167.100 29.952 6.271
167.175 29.952 6.289
167.250 29.952 6.281
167.325 29.952 6.273
167.400 29.952 6.231
167.475 29.952 6.213
167.550 29.952 6.192
167.625 29.952 6.166
167.700 29.952 6.181
167.775 29.952 6.188
167.850 29.952 6.196
167.925 29.952 6.208
168.000 29.952 6.216
168.075 29.952 6.210
168.150 29.952 6.181
168.225 29.952 6.194
168.300 29.952 6.209
168.375 29.952 6.228
168.450 29.952 6.242
168.525 29.952 6.244
168.600 29.952 6.259
168.675 29.952 6.267
168.750 29.952 6.252
168.825 29.952 6.230
168.900 29.952 6.222
168.975 29.952 6.247
169.050 29.952 6.218
169.125 29.952 6.238
169.200 29.952 6.234
169.275 29.952 6.218
169.350 29.952 6.213
169.425 29.952 6.220
169.500 29.952 6.228
169.575 29.952 6.273
169.650 29.952 6.318
169.725 29.952 6.330
169.800 29.952 6.317
169.875 29.952 6.310
169.950 29.952 6.302
170.025 29.952 6.325
170.100 29.952 6.341
170.175 29.952 6.339
170.250 29.952 6.330
170.325 29.952 6.345
170.400 29.952 6.352
170.475 29.952 6.378
170.550 29.952 6.376
170.625 29.952 6.368
170.700 29.952 6.378
170.775 29.952 6.371
170.850 29.952 6.370
170.925 29.952 6.376
171.000 29.952 6.367
171.075 29.952 6.358
171.150 29.952 6.375
171.225 29.952 6.346
171.300 29.952 6.342
171.375 29.952 6.346
171.450 29.952 6.364
171.525 29.952 6.388
171.600 29.952 6.395
171.675 29.952 6.387
171.750 29.952 6.385
171.825 29.952 6.367
171.900 29.952 6.351
171.975 29.952 6.352
172.050 29.952 6.316
172.125 29.952 6.293
172.200 29.952 6.279
172.275 29.952 6.283
172.350 29.952 6.306
172.425 29.952 6.330
172.500 29.952 6.361
172.575 29.952 6.406
172.650 29.952 6.436
172.725 29.952 6.446
172.800 29.952 6.445
172.875 29.952 6.445
172.950 29.952 6.445
173.025 29.952 6.406
173.100 29.952 6.385
173.175 29.952 6.378
173.250 29.952 6.375
173.325 29.952 6.398
173.400 29.952 6.413
173.475 29.952 6.416
173.550 29.952 6.439
173.625 29.952 6.458
173.700 29.952 6.450
173.775 29.952 6.442
173.850 29.952 6.421
173.925 29.952 6.426
174.000 29.952 6.436
174.075 29.952 6.446
174.150 29.952 6.458
174.225 29.952 6.450
174.300 29.952 6.450
174.375 29.952 6.455
174.450 29.952 6.462
174.525 29.952 6.467
174.600 29.952 6.468
174.675 29.952 6.483
174.750 29.952 6.491
174.825 29.952 6.498
174.900 29.952 6.517
174.975 29.952 6.533
175.050 29.952 6.520
175.125 29.952 6.528
175.200 29.952 6.542
175.275 29.952 6.552
175.350 29.952 6.551
175.425 29.952 6.540
175.500 29.952 6.518
175.575 29.952 6.518
175.650 29.952 6.518
175.725 29.952 6.513
175.800 29.952 6.501
175.875 29.952 6.481
175.950 29.952 6.489
176.025 29.952 6.510
176.100 29.952 6.506
176.175 29.952 6.494
176.250 29.952 6.485
176.325 29.952 6.470
176.400 29.952 6.493
176.475 29.952 6.523
176.550 29.952 6.538
176.625 29.952 6.529
176.700 29.952 6.504
176.775 29.952 6.496
176.850 29.952 6.510
176.925 29.952 6.538
177.000 29.952 6.559
177.075 29.952 6.564
177.150 29.952 6.568
177.225 29.952 6.614
177.300 29.952 6.637
177.375 29.952 6.613
177.450 29.952 6.617
177.525 29.952 6.637
177.600 29.952 6.648
177.675 29.952 6.648
177.750 29.952 6.655
177.825 29.952 6.656
177.900 29.952 6.666
177.975 29.952 6.670
178.050 29.952 6.659
178.125 29.952 6.637
178.200 29.952 6.637
178.275 29.952 6.631
178.350 29.952 6.623
178.425 29.952 6.620
178.500 29.952 6.627
178.575 29.952 6.635
178.650 29.952 6.642
178.725 29.952 6.655
178.800 29.952 6.678
178.875 29.952 6.698
178.950 29.952 6.698
179.025 29.952 6.697
179.100 29.952 6.684
179.175 29.952 6.689
179.250 29.952 6.700
179.325 29.952 6.715
179.400 29.952 6.741
179.475 29.952 6.733
179.550 29.952 6.719
179.625 29.952 6.734
179.700 29.952 6.761
179.775 29.952 6.779
179.850 29.952 6.783
179.925 29.952 6.768
180.000 29.952 6.760
180.075 29.952 6.743
180.150 29.952 6.748
180.225 29.952 6.780
180.300 29.952 6.764
180.375 29.952 6.710
180.450 29.952 6.660
180.525 29.952 6.586
180.600 29.952 6.463
139.800 30.144 3.293
139.875 30.144 4.234
139.950 30.144 5.436
140.025 30.144 5.769
140.100 30.144 6.278
140.175 30.144 6.785
140.250 30.144 7.043
140.325 30.144 7.158
140.400 30.144 7.218
140.475 30.144 7.235
140.550 30.144 7.227
140.625 30.144 7.219
140.700 30.144 7.203
140.775 30.144 7.169
140.850 30.144 7.132
140.925 30.144 7.107
141.000 30.144 7.111
141.075 30.144 7.163
141.150 30.144 7.170
141.225 30.144 7.171
141.300 30.144 7.166
141.375 30.144 7.155
141.450 30.144 7.139
141.525 30.144 7.116
141.600 30.144 7.101
141.675 30.144 7.064
141.750 30.144 7.034
141.825 30.144 7.033
141.900 30.144 7.069
141.975 30.144 7.083
142.050 30.144 7.091
142.125 30.144 7.088
142.200 30.144 7.073
142.275 30.144 7.051
142.350 30.144 7.028
142.425 30.144 7.020
142.500 30.144 7.018
142.575 30.144 7.018
142.650 30.144 7.017
142.725 30.144 7.018
142.800 30.144 7.025
142.875 30.144 7.025
142.950 30.144 7.036
143.025 30.144 7.022
143.100 30.144 6.999
143.175 30.144 7.006
143.250 30.144 7.013
143.325 30.144 7.020
143.400 30.144 7.017
143.475 30.144 6.998
143.550 30.144 6.968
143.625 30.144 6.939
143.700 30.144 6.931
143.775 30.144 6.917
143.850 30.144 6.906
143.925 30.144 6.904
144.000 30.144 6.913
144.075 30.144 6.936
144.150 30.144 6.951
144.225 30.144 6.953
144.300 30.144 6.957
144.375 30.144 6.953
144.450 30.144 6.933
144.525 30.144 6.925
144.600 30.144 6.917
144.675 30.144 6.920
144.750 30.144 6.923
144.825 30.144 6.923
144.900 30.144 6.921
144.975 30.144 6.898
145.050 30.144 6.888
145.125 30.144 6.875
145.200 30.144 6.875
145.275 30.144 6.893
145.350 30.144 6.892
145.425 30.144 6.907
145.500 30.144 6.904
145.575 30.144 6.896
145.650 30.144 6.880
145.725 30.144 6.852
145.800 30.144 6.837
145.875 30.144 6.822
145.950 30.144 6.811
146.025 30.144 6.810
146.100 30.144 6.814
146.175 30.144 6.806
146.250 30.144 6.821
146.325 30.144 6.817
146.400 30.144 6.805
146.475 30.144 6.792
146.550 30.144 6.784
146.625 30.144 6.776
146.700 30.144 6.755
146.775 30.144 6.737
146.850 30.144 6.719
146.925 30.144 6.700
147.000 30.144 6.692
147.075 30.144 6.707
147.150 30.144 6.722
147.225 30.144 6.741
147.300 30.144 6.764
147.375 30.144 6.782
147.450 30.144 6.789
147.525 30.144 6.781
147.600 30.144 6.761
147.675 30.144 6.747
147.750 30.144 6.742
147.825 30.144 6.744
147.900 30.144 6.759
147.975 30.144 6.738
148.050 30.144 6.705
148.125 30.144 6.685
148.200 30.144 6.685
148.275 30.144 6.684
148.350 30.144 6.668
148.425 30.144 6.659
148.500 30.144 6.651
148.575 30.144 6.646
148.650 30.144 6.647
148.725 30.144 6.654
148.800 30.144 6.669
148.875 30.144 6.666
148.950 30.144 6.662
149.025 30.144 6.667
149.100 30.144 6.679
149.175 30.144 6.671
149.250 30.144 6.663
149.325 30.144 6.640
149.400 30.144 6.617
149.475 30.144 6.605
149.550 30.144 6.604
149.625 30.144 6.604
149.700 30.144 6.603
149.775 30.144 6.603
149.850 30.144 6.597
149.925 30.144 6.584
150.000 30.144 6.583
150.075 30.144 6.590
150.150 30.144 6.597
150.225 30.144 6.596
150.300 30.144 6.589
150.375 30.144 6.579
150.450 30.144 6.549
150.525 30.144 6.544
150.600 30.144 6.539
150.675 30.144 6.531
150.750 30.144 6.527
150.825 30.144 6.542
150.900 30.144 6.542
150.975 30.144 6.547
151.050 30.144 6.550
151.125 30.144 6.547
151.200 30.144 6.536
151.275 30.144 6.500
151.350 30.144 6.494
151.425 30.144 6.484
151.500 30.144 6.484
151.575 30.144 6.503
151.650 30.144 6.511
151.725 30.144 6.518
151.800 30.144 6.513
151.875 30.144 6.484
151.950 30.144 6.442
152.025 30.144 6.409
152.100 30.144 6.416
152.175 30.144 6.416
152.250 30.144 6.402
152.325 30.144 6.382
152.400 30.144 6.372
152.475 30.144 6.387
152.550 30.144 6.380
152.625 30.144 6.378
152.700 30.144 6.369
152.775 30.144 6.354
152.850 30.144 6.339
152.925 30.144 6.324
153.000 30.144 6.327
153.075 30.144 6.344
153.150 30.144 6.363
153.225 30.144 6.386
153.300 30.144 6.430
153.375 30.144 6.444
153.450 30.144 6.426
153.525 30.144 6.381
153.600 30.144 6.327
153.675 30.144 6.280
153.750 30.144 6.272
153.825 30.144 6.297
153.900 30.144 6.322
153.975 30.144 6.337
154.050 30.144 6.338
154.125 30.144 6.322
154.200 30.144 6.300
154.275 30.144 6.302
154.350 30.144 6.313
154.425 30.144 6.319
154.500 30.144 6.314
154.575 30.144 6.321
154.650 30.144 6.306
154.725 30.144 6.296
154.800 30.144 6.285
154.875 30.144 6.278
154.950 30.144 6.292
155.025 30.144 6.291
155.100 30.144 6.278
155.175 30.144 6.277
155.250 30.144 6.271
155.325 30.144 6.253
155.400 30.144 6.253
155.475 30.144 6.231
155.550 30.144 6.214
155.625 30.144 6.198
155.700 30.144 6.189
155.775 30.144 6.196
155.850 30.144 6.195
155.925 30.144 6.208
156.000 30.144 6.218
156.075 30.144 6.222
156.150 30.144 6.219
156.225 30.144 6.212
156.300 30.144 6.189
156.375 30.144 6.167
156.450 30.144 6.172
156.525 30.144 6.195
156.600 30.144 6.199
156.675 30.144 6.184
156.750 30.144 6.182
156.825 30.144 6.192
156.900 30.144 6.199
156.975 30.144 6.201
157.050 30.144 6.207
157.125 30.144 6.192
157.200 30.144 6.177
157.275 30.144 6.161
157.350 30.144 6.163
157.425 30.144 6.184
157.500 30.144 6.161
157.575 30.144 6.125
157.650 30.144 6.114
157.725 30.144 6.128
157.800 30.144 6.157
157.875 30.144 6.178
157.950 30.144 6.185
158.025 30.144 6.165
158.100 30.144 6.152
158.175 30.144 6.138
158.250 30.144 6.117
158.325 30.144 6.102
158.400 30.144 6.101
158.475 30.144 6.095
158.550 30.144 6.108
158.625 30.144 6.130
158.700 30.144 6.141
158.775 30.144 6.171
158.850 30.144 6.165
158.925 30.144 6.141
159.000 30.144 6.105
159.075 30.144 6.063
159.150 30.144 6.027
159.225 30.144 5.997
159.300 30.144 5.973
159.375 30.144 5.954
159.450 30.144 5.934
159.525 30.144 5.898
159.600 30.144 5.861
159.675 30.144 5.802
159.750 30.144 5.728
159.825 30.144 5.647
159.900 30.144 5.590
159.975 30.144 5.506
161.925 30.144 5.689
162.000 30.144 5.736
162.075 30.144 5.808
162.150 30.144 5.820
162.225 30.144 5.844
162.300 30.144 5.887
162.375 30.144 5.967
162.450 30.144 6.051
162.525 30.144 5.969
162.600 30.144 6.001
162.675 30.144 6.053
162.750 30.144 6.083
162.825 30.144 6.105
162.900 30.144 6.133
162.975 30.144 6.154
163.050 30.144 6.153
163.125 30.144 6.147
163.200 30.144 6.129
163.275 30.144 6.101
163.350 30.144 6.069
163.425 30.144 6.062
163.500 30.144 6.054
163.575 30.144 6.046
163.650 30.144 6.032
163.725 30.144 6.026
163.800 30.144 6.082
163.875 30.144 6.129
163.950 30.144 6.139
164.025 30.144 6.130
164.100 30.144 6.108
164.175 30.144 6.089
164.250 30.144 6.104
164.325 30.144 6.111
164.400 30.144 6.106
164.475 30.144 6.085
164.550 30.144 6.056
164.625 30.144 6.030
164.700 30.144 6.037
164.775 30.144 6.038
164.850 30.144 6.053
164.925 30.144 6.047
165.000 30.144 6.008
165.075 30.144 5.958
165.150 30.144 5.998
165.225 30.144 6.014
165.300 30.144 6.005
165.375 30.144 5.987
165.450 30.144 5.980
165.525 30.144 5.972
165.600 30.144 5.977
165.675 30.144 5.995
165.750 30.144 6.010
165.825 30.144 6.015
165.900 30.144 6.016
165.975 30.144 6.031
166.050 30.144 6.053
166.125 30.144 6.087
166.200 30.144 6.122
166.275 30.144 6.147
166.350 30.144 6.158
166.425 30.144 6.150
166.500 30.144 6.149
166.575 30.144 6.138
166.650 30.144 6.119
166.725 30.144 6.109
166.800 30.144 6.133
166.875 30.144 6.163
166.950 30.144 6.194
167.025 30.144 6.232
167.100 30.144 6.271
167.175 30.144 6.289
167.250 30.144 6.281
167.325 30.144 6.273
167.400 30.144 6.231
167.475 30.144 6.213
167.550 30.144 6.209
167.625 30.144 6.211
167.700 30.144 6.220
167.775 30.144 6.250
167.850 30.144 6.253
167.925 30.144 6.224
168.000 30.144 6.187
168.075 30.144 6.162
168.150 30.144 6.170
168.225 30.144 6.184
168.300 30.144 6.211
168.375 30.144 6.237
168.450 30.144 6.260
168.525 30.144 6.280
168.600 30.144 6.287
168.675 30.144 6.294
168.750 30.144 6.290
168.825 30.144 6.274
168.900 30.144 6.259
168.975 30.144 6.260
169.050 30.144 6.275
169.125 30.144 6.256
169.200 30.144 6.234
169.275 30.144 6.215
169.350 30.144 6.205
169.425 30.144 6.220
169.500 30.144 6.235
169.575 30.144 6.263
169.650 30.144 6.294
169.725 30.144 6.329
169.800 30.144 6.347
169.875 30.144 6.318
169.950 30.144 6.304
170.025 30.144 6.283
170.100 30.144 6.281
170.175 30.144 6.299
170.250 30.144 6.325
170.325 30.144 6.363
170.400 30.144 6.355
170.475 30.144 6.378
170.550 30.144 6.376
170.625 30.144 6.368
170.700 30.144 6.377
170.775 30.144 6.362
170.850 30.144 6.368
170.925 30.144 6.376
171.000 30.144 6.363
171.075 30.144 6.334
171.150 30.144 6.306
171.225 30.144 6.305
171.300 30.144 6.330
171.375 30.144 6.341
171.450 30.144 6.332
171.525 30.144 6.314
171.600 30.144 6.313
171.675 30.144 6.375
171.750 30.144 6.385
171.825 30.144 6.376
171.900 30.144 6.364
171.975 30.144 6.353
172.050 30.144 6.324
172.125 30.144 6.301
172.200 30.144 6.284
172.275 30.144 6.283
172.350 30.144 6.308
172.425 30.144 6.340
172.500 30.144 6.397
172.575 30.144 6.430
172.650 30.144 6.426
172.725 30.144 6.426
172.800 30.144 6.431
172.875 30.144 6.418
172.950 30.144 6.418
173.025 30.144 6.398
173.100 30.144 6.385
173.175 30.144 6.362
173.250 30.144 6.319
173.325 30.144 6.350
173.400 30.144 6.405
173.475 30.144 6.416
173.550 30.144 6.439
173.625 30.144 6.454
173.700 30.144 6.437
173.775 30.144 6.408
173.850 30.144 6.406
173.925 30.144 6.411
174.000 30.144 6.418
174.075 30.144 6.433
174.150 30.144 6.458
174.225 30.144 6.450
174.300 30.144 6.450
174.375 30.144 6.449
174.450 30.144 6.442
174.525 30.144 6.431
174.600 30.144 6.431
174.675 30.144 6.454
174.750 30.144 6.477
174.825 30.144 6.489
174.900 30.144 6.512
174.975 30.144 6.531
175.050 30.144 6.511
175.125 30.144 6.519
175.200 30.144 6.500
175.275 30.144 6.483
175.350 30.144 6.479
175.425 30.144 6.493
175.500 30.144 6.500
175.575 30.144 6.507
175.650 30.144 6.497
175.725 30.144 6.486
175.800 30.144 6.479
175.875 30.144 6.472
175.950 30.144 6.480
176.025 30.144 6.480
176.100 30.144 6.480
176.175 30.144 6.483
176.250 30.144 6.485
176.325 30.144 6.470
176.400 30.144 6.493
176.475 30.144 6.497
176.550 30.144 6.501
176.625 30.144 6.506
176.700 30.144 6.504
176.775 30.144 6.496
176.850 30.144 6.510
176.925 30.144 6.514
177.000 30.144 6.522
177.075 30.144 6.540
177.150 30.144 6.568
177.225 30.144 6.614
177.300 30.144 6.637
177.375 30.144 6.613
177.450 30.144 6.594
177.525 30.144 6.590
177.600 30.144 6.610
177.675 30.144 6.648
177.750 30.144 6.655
177.825 30.144 6.650
177.900 30.144 6.624
177.975 30.144 6.601
178.050 30.144 6.602
178.125 30.144 6.609
178.200 30.144 6.603
178.275 30.144 6.605
178.350 30.144 6.609
178.425 30.144 6.613
178.500 30.144 6.627
178.575 30.144 6.635
178.650 30.144 6.642
178.725 30.144 6.655
178.800 30.144 6.678
178.875 30.144 6.698
178.950 30.144 6.698
179.025 30.144 6.697
179.100 30.144 6.671
179.175 30.144 6.671
179.250 30.144 6.686
179.325 30.144 6.703
179.400 30.144 6.724
179.475 30.144 6.731
179.550 30.144 6.712
179.625 30.144 6.719
179.700 30.144 6.750
179.775 30.144 6.779
179.850 30.144 6.783
179.925 30.144 6.768
180.000 30.144 6.741
180.075 30.144 6.744
180.150 30.144 6.767
180.225 30.144 6.786
180.300 30.144 6.788
180.375 30.144 6.722
180.450 30.144 6.633
180.525 30.144 6.538
180.600 30.144 6.454
180.675 30.144 6.363
139.800 30.336 3.239
139.875 30.336 4.234
139.950 30.336 5.399
140.025 30.336 5.760
140.100 30.336 6.671
140.175 30.336 6.909
140.250 30.336 7.057
140.325 30.336 7.151
140.400 30.336 7.203
140.475 30.336 7.225
140.550 30.336 7.227
140.625 30.336 7.219
140.700 30.336 7.203
140.775 30.336 7.169
140.850 30.336 7.160
140.925 30.336 7.167
141.000 30.336 7.180
141.075 30.336 7.209
141.150 30.336 7.216
141.225 30.336 7.204
141.300 30.336 7.184
141.375 30.336 7.170
141.450 30.336 7.167
141.525 30.336 7.152
141.600 30.336 7.115
141.675 30.336 7.105
141.750 30.336 7.109
141.825 30.336 7.116
141.900 30.336 7.120
141.975 30.336 7.105
142.050 30.336 7.096
142.125 30.336 7.109
142.200 30.336 7.135
142.275 30.336 7.151
142.350 30.336 7.135
142.425 30.336 7.105
142.500 30.336 7.045
142.575 30.336 7.005
142.650 30.336 6.993
142.725 30.336 7.003
142.800 30.336 7.025
142.875 30.336 7.025
142.950 30.336 7.019
143.025 30.336 6.999
143.100 30.336 6.979
143.175 30.336 6.977
143.250 30.336 6.969
143.325 30.336 6.981
143.400 30.336 6.991
143.475 30.336 6.987
143.550 30.336 6.968
143.625 30.336 6.939
143.700 30.336 6.931
143.775 30.336 6.935
143.850 30.336 6.942
143.925 30.336 6.949
144.000 30.336 6.958
144.075 30.336 6.972
144.150 30.336 6.965
144.225 30.336 6.962
144.300 30.336 6.958
144.375 30.336 6.952
144.450 30.336 6.953
144.525 30.336 6.960
144.600 30.336 6.932
144.675 30.336 6.924
144.750 30.336 6.923
144.825 30.336 6.923
144.900 30.336 6.920
144.975 30.336 6.890
145.050 30.336 6.873
145.125 30.336 6.857
145.200 30.336 6.860
145.275 30.336 6.885
145.350 30.336 6.892
145.425 30.336 6.907
145.500 30.336 6.904
145.575 30.336 6.896
145.650 30.336 6.880
145.725 30.336 6.852
145.800 30.336 6.837
145.875 30.336 6.778
145.950 30.336 6.762
146.025 30.336 6.783
146.100 30.336 6.813
146.175 30.336 6.842
146.250 30.336 6.850
146.325 30.336 6.844
146.400 30.336 6.836
146.475 30.336 6.822
146.550 30.336 6.802
146.625 30.336 6.794
146.700 30.336 6.780
146.775 30.336 6.764
146.850 30.336 6.753
146.925 30.336 6.749
147.000 30.336 6.757
147.075 30.336 6.771
147.150 30.336 6.786
147.225 30.336 6.786
147.300 30.336 6.788
147.375 30.336 6.799
147.450 30.336 6.798
147.525 30.336 6.790
147.600 30.336 6.770
147.675 30.336 6.761
147.750 30.336 6.763
147.825 30.336 6.768
147.900 30.336 6.760
147.975 30.336 6.738
148.050 30.336 6.705
